# .PCD v.7 - Point Cloud Data file format
VERSION .7
FIELDS x y z
SIZE 4 4 4
TYPE F F F
COUNT 1 1 1
WIDTH 1619
HEIGHT 1
VIEWPOINT 0 0 0 1 0 0 0
POINTS 1619
DATA ascii
-0.04537272 -0.2233973 1.350762
-0.1976381 -0.06971174 1.296649
-0.5793215 -0.1817664 1.214028
-0.4584184 -0.2054933 1.266044
-0.1003934 -0.523706 1.325819
-0.1470916 -0.5453517 1.331297
-0.2705385 0.1313127 0.9760038
-0.2957607 0.2111018 0.9388338
-0.01064706 0.2114969 1.147366
0.3296834 0.5478898 1.389076
-0.03200742 0.6861576 2.031947
0.01733503 0.5413179 0.8921598
0.04927327 0.4683897 0.8138068
-0.5893666 -0.4314556 1.251011
0.3209141 -0.2978257 1.456804
-0.4413036 0.3672307 1.1931
-0.4575366 0.3346537 1.213221
-0.3601779 0.1806275 1.241613
-0.0379569 0.4881059 0.8705177
-0.06503054 0.6359898 0.9670284
0.2620462 0.5368258 0.8595228
-0.01432377 0.7667299 1.112875
0.05343971 0.7529914 1.125509
0.3442544 0.3688164 1.028
0.3670337 0.4404966 1.382413
0.02338361 0.2611109 1.178929
0.3607363 0.3960527 1.377347
0.1058117 0.4085826 1.357509
0.05875213 0.160521 1.327895
-0.5021492 -0.4085945 1.247995
-0.3406773 -0.1504256 1.265653
-0.2419776 -0.2321866 1.301831
-0.3623804 -0.5004218 1.28316
-0.3625935 -0.396711 1.295819
-0.3266266 -0.1433255 1.273932
-0.5696151 -0.4621452 1.249618
-0.1655423 -0.007742472 1.277246
-0.1404531 -0.1320962 1.316828
-0.1412197 -0.2476463 1.334557
-0.3637824 -0.3953635 1.303772
0.06014731 0.1661833 1.335921
-0.388308 -0.3629486 1.29921
0.0572702 0.1485477 1.291908
0.6388332 0.05385809 1.466191
0.5465698 0.3670941 1.383384
0.1000547 0.1497048 1.375305
-0.4100471 -0.1962514 1.118812
-0.3868255 -0.3655835 1.282223
0.1614718 0.2344273 1.382828
-0.6260014 -0.1752989 1.283775
-0.1422235 -0.1306479 1.317581
-0.02490481 -0.1810635 1.339049
0.3063105 0.3246098 1.347988
0.1033189 0.4127364 1.359165
0.4525843 0.2507983 1.404228
-0.01329207 0.3634039 1.312728
0.4803578 0.04746319 1.343529
0.3115723 0.3432922 1.383564
0.4549779 -0.08434782 1.444622
0.3276564 0.1992005 1.283751
0.4126821 0.3936259 1.641241
0.3531934 0.2476122 1.409496
0.08753783 0.1155989 1.471468
0.01037341 0.08505578 1.466789
0.3766149 0.3064675 1.533629
0.01139423 -0.4733361 1.353988
-0.1838433 -0.2158255 1.310754
0.1091883 0.3247517 1.331065
-0.2109911 -0.4606228 1.338097
-0.2418651 -0.215367 1.303689
-0.2530148 -0.2382537 1.297866
0.3627523 0.248152 1.399976
0.03265725 -0.04869021 1.325701
-0.3076928 -0.1861636 1.279946
-0.04463883 -0.2261737 1.361216
-0.3600563 -0.03235366 1.229516
-0.6406592 -0.2141542 1.199979
-0.4501274 -0.2036772 1.251544
-0.2615565 -0.4931058 1.303467
-0.1735731 -0.484217 1.317538
-0.1006009 -0.5258425 1.325601
-0.5011388 -0.4247431 1.254608
-0.510882 -0.4778885 1.268763
0.6723438 -0.03014615 1.480045
0.2000662 -0.08218694 1.303463
0.358174 0.4137608 1.53253
0.009983667 0.5419538 0.8949032
0.2473772 0.532773 0.8575157
-0.3967341 0.6557859 1.061015
-0.2092857 0.15374 0.8152454
0.2632791 0.513304 1.405951
0.1124665 0.4365997 1.392674
-0.1871158 0.2748352 1.140231
0.1780555 0.5008535 1.36286
-0.1877538 0.2853303 1.163699
0.3495719 -0.05797328 1.364527
0.3470333 0.4918935 1.095994
0.358862 0.3019006 1.112896
0.3617527 0.4413531 1.158584
-0.3026937 0.7224049 1.285886
0.3684041 0.4396974 1.384457
0.3593993 0.441235 1.157184
0.3727745 0.5366194 1.293419
-0.05605215 -0.1808888 1.342922
0.1156915 -0.4631657 1.388262
0.3222051 -0.2997797 1.456961
0.01470742 -0.09465564 1.354524
0.4723364 -0.08149878 1.433708
-0.4398985 -0.4845905 1.283649
0.5915521 0.03293196 1.420734
-0.06328805 0.06033025 1.298342
0.1035621 -0.4405924 1.36654
0.4358787 0.2657845 1.387829
0.01324697 -0.01508624 1.362788
0.3095014 0.3363994 1.377072
0.3126902 0.3474875 1.402329
0.2564001 0.2674488 1.356898
-0.168108 -0.1374834 1.348306
0.1036899 -0.4637785 1.378325
-0.1476021 -0.006732213 1.285129
0.4266677 -0.1031201 1.337047
-0.5677919 -0.4338557 1.240374
0.05265277 -0.1562284 1.192622
0.1141199 -0.03341067 1.145825
0.2346487 0.09840148 1.185247
0.2426849 0.1246918 1.323388
0.03768072 -0.1132961 1.019428
0.1025524 0.05524578 1.068377
0.04973216 -0.07017849 1.06563
-0.04966506 0.3309817 1.289466
-0.4375438 0.3676825 1.196557
-0.3533524 0.1385411 1.236036
-0.3637202 0.1817351 1.248048
-0.4347664 0.2165887 1.226096
-0.2252164 -0.4598789 1.3369
-0.2445632 -0.2257406 1.31249
-0.2324974 -0.03757502 1.288432
-0.3598363 -0.1571226 1.261991
0.4411383 0.0895208 1.41812
0.05010282 -0.2637383 1.422143
0.08351101 0.1844044 1.287523
0.01354643 0.1654565 1.293293
0.4114772 0.453141 1.762318
0.2635948 0.7840503 2.024193
0.3589791 0.6129141 1.296072
0.29594 0.8584738 2.17494
0.3865347 0.4332811 1.588647
-0.02166082 0.6736072 2.030444
-0.2751397 -0.2202692 1.293295
0.2501949 0.2850883 1.388527
0.2676221 0.06023883 1.477983
0.3770169 0.1544338 1.350662
0.2549 -0.06381384 1.351518
0.4561516 0.253094 1.409417
0.1774479 -0.05477995 1.199903
0.2490274 0.05390123 1.231594
0.1747522 -0.03404729 1.170053
0.05603052 0.2147959 1.147202
0.1687205 0.03863077 1.270637
-0.1204857 0.08148032 1.029444
0.1092181 -0.002406402 1.032548
0.004642851 -0.1863094 1.078301
0.01913212 0.2551307 1.210333
0.08858538 0.2409761 1.13708
-0.2690046 0.1908848 1.126463
-0.310012 0.8445057 1.409562
0.5276783 0.8503467 2.078657
0.6242533 0.4633075 1.274871
0.3556041 0.6127551 1.295496
0.1293323 0.1487825 1.025874
0.09626505 0.1865402 1.135181
-0.0131129 0.1103454 1.148342
-0.2496396 0.04200802 0.7839862
-0.2093298 0.07389026 0.8182302
-0.02373087 0.1621803 1.229067
-0.2141524 0.07062866 0.7990754
0.1518976 0.1479929 1.184512
0.06198273 0.4097046 0.7500602
-0.3665275 0.5194576 0.9274701
0.02997243 0.5139405 0.8764744
0.0515368 0.5453745 0.8957455
0.2732704 0.5524655 0.865357
0.2847151 0.7663661 1.071695
0.3581839 0.7065707 1.000668
0.291341 0.7626562 1.151901
0.2817753 0.7632773 1.071745
-0.01458047 -0.2028898 1.352763
-0.2897483 -0.2195162 1.358708
-0.1275328 -0.2707593 1.285628
-0.2541482 -0.02599198 1.28334
0.04225449 0.2604485 1.291546
0.5398532 0.4709627 1.370033
0.07956633 -0.2811123 1.396288
-0.0224453 0.4182036 1.302793
-0.2378156 -0.2825659 1.368381
0.0712733 -0.2851571 1.455743
0.05200036 0.3069139 1.245313
-0.4822997 1.233695 1.74347
0.3473972 0.7511532 1.058008
0.3491454 0.6579829 1.245723
0.2852491 0.7664606 1.077956
-0.308958 0.7785115 1.225318
0.3765655 0.7518391 1.094342
0.21576 0.5788376 1.559133
0.25837 0.7024817 1.901847
0.3429057 0.7252073 1.853241
-0.07471376 0.8385332 2.016377
0.3176691 0.5997478 1.817582
-0.3815705 0.1386966 1.249841
0.1739219 0.09786102 1.290232
0.3803838 0.09079179 1.400439
-0.022848 -0.1886667 1.356398
0.1795313 -0.02016074 1.343678
0.1049102 0.004566251 1.454594
-0.2418461 -0.2181421 1.307889
-0.2821484 -0.2100352 1.305526
-0.0896081 -0.05224351 1.323372
-0.24781 -0.1829935 1.29887
-0.246032 -0.1822427 1.290821
-0.1894158 -0.4757178 1.337691
-0.06377236 -0.074205 1.336062
-0.3114686 -0.185607 1.282173
-0.02295351 -0.1840741 1.355227
0.01145085 0.3965181 1.299756
0.4249048 0.5110117 1.374102
0.0002308638 0.280599 1.290957
-0.143372 -0.295963 1.424765
-0.04733155 0.3311071 1.279563
0.4581584 0.258336 1.421545
-0.3423412 -0.03258494 1.201219
-0.08891553 0.7471247 1.158755
-0.3334224 0.140572 0.9069232
0.4872414 0.3096279 1.406016
-0.1900681 -0.4758234 1.336276
0.509962 0.3544872 1.386233
-0.2686926 -0.4599857 1.319911
-0.2179465 0.02122349 1.244869
-0.08967869 -0.4083622 1.366302
-0.1148272 -0.03873966 1.297556
0.3471814 0.5478926 1.377654
0.5327483 0.5136839 1.349471
0.3544307 0.5549416 1.390809
0.572749 0.07368429 1.408965
-0.03289233 0.178384 1.004409
-0.07324054 0.1792722 1.001442
-0.3789035 1.127619 2.585803
-0.2923554 0.2302941 0.9798267
0.6326348 0.4294602 1.340042
-0.07092658 -0.03133331 1.319103
0.6469962 0.3848825 1.283299
0.05590734 0.1240184 0.964489
-0.1489998 0.120029 0.8771858
0.2026728 0.116605 1.137368
0.3237826 0.761925 1.192332
-0.3606544 0.818404 1.276088
0.2446271 0.5272049 0.9188248
-0.3025284 0.7658226 1.220833
-0.3065137 0.7715451 1.228081
0.3242627 0.5410508 0.9093937
0.2548523 0.2406575 1.122768
-0.337443 0.800597 1.176507
0.3843998 0.3463155 1.09614
0.1650833 0.7322844 1.118388
0.3551694 0.4158162 1.173694
0.3405388 0.5036241 1.021041
-0.2827839 0.598948 1.35653
0.3433276 0.5063788 1.023933
0.3312122 0.1954014 1.53799
0.3251876 0.2480998 1.57265
0.5270762 0.3102777 1.726714
0.3868226 0.3419067 1.552685
-0.3621827 0.8267704 1.281762
0.4117141 0.8642281 1.272033
-0.4922704 0.9100254 1.847091
-0.4678551 0.9757613 1.769298
0.05185815 0.7505215 1.124171
0.3408945 0.486666 1.092445
-0.2704727 0.4763639 1.320606
-0.1414765 0.5693478 1.54888
0.2703615 0.1093165 1.455218
-0.3015707 0.1965575 0.9473827
-0.2952138 0.1615818 0.9656603
0.3351281 0.5894743 1.379711
0.6107357 0.3623698 1.374816
-0.2828178 0.6200413 1.379059
0.3804325 0.5220085 1.098935
-0.284948 0.6427714 1.4123
0.313215 0.7510942 1.186309
0.3346552 0.7526991 1.142573
0.3484572 0.7225323 1.075455
0.3651678 0.4008646 1.384307
0.3301196 0.6565804 1.26029
0.3490661 0.6685877 1.275145
0.3552867 0.7165934 1.122458
0.3195268 0.6802419 1.203406
-0.298231 0.7295839 1.345989
0.3243183 0.535975 1.386416
-0.4778539 1.198386 1.978867
0.123303 0.1612448 1.373043
0.3629608 0.3946678 1.378904
-0.2640107 0.5627406 1.499888
0.4214144 0.5240786 1.693532
-0.3763935 1.071657 2.489275
0.3259582 0.3451485 1.206766
0.1133433 0.5480686 1.375989
0.3438384 0.6595756 1.678604
0.4769726 0.692078 1.947551
0.2162524 0.8465404 2.167141
-0.04602439 0.7174635 2.078526
0.2817893 1.066851 2.435859
0.2780135 0.905209 2.339047
-0.03245587 0.6851041 2.029132
0.4303654 0.5450789 1.843368
-0.5799721 -0.3791168 1.241028
0.1092691 -0.1701205 1.378582
-0.2204283 0.3316257 1.257215
0.3510338 0.7072496 1.199983
-0.07227842 0.4441704 1.112545
-0.3770187 0.5685955 0.9602971
-0.3756235 0.5655122 0.9585759
0.3962773 0.352845 1.104618
0.2481188 0.2387259 1.118166
-0.3369463 0.7920109 1.170851
0.238513 0.2347922 1.1113
-0.3737358 0.5427293 0.9728495
-0.08446141 0.7500143 1.163864
0.3278739 0.6057223 0.9663281
0.3934802 0.4879549 1.502691
0.4252939 0.5558022 1.691451
0.30807 0.7637066 1.85637
0.3921729 0.4824049 1.803754
0.3893 0.4878496 1.500422
0.4022295 0.3927897 1.633185
0.3204394 0.6799485 1.882089
-0.1899636 0.1033622 0.8293782
-0.2213096 0.07854249 0.7943297
0.01294202 0.1354538 1.125631
0.3396165 0.5902785 1.37632
0.3670839 0.531249 1.293495
-0.263176 0.6779981 1.727998
-0.1269333 0.1338509 0.9249703
0.5922087 0.2984101 1.35634
0.3788742 0.4097055 1.482853
-0.3263631 0.9135048 2.319175
0.2042039 0.7476943 2.096305
0.2264237 0.7342523 1.918748
0.3288149 0.6888774 1.218458
-0.2143609 0.5062957 1.208417
-0.4329697 1.073952 2.025641
0.3121358 0.7505863 1.189462
-0.4394978 1.021925 1.78415
-0.4759418 0.9949865 1.797199
-0.4904376 0.904951 1.830874
0.3355867 0.5898591 1.376333
-0.006568322 0.6294853 1.324351
0.2862965 0.767078 1.081434
0.3342839 0.5507939 1.025783
0.3605486 0.6548871 1.191596
0.3480719 0.5283964 1.067216
0.2682007 0.6045246 1.961335
0.4242578 0.240445 1.389457
-0.286403 -0.2073542 1.291775
0.6371589 0.007830369 1.446561
0.3743998 0.3129872 1.387071
-0.2294326 -0.4426649 1.317518
-0.00877613 0.3671964 1.317408
0.4109178 0.1781583 1.424561
0.2439632 -0.2128128 1.307477
-0.3056519 0.7427375 1.269841
-0.2952776 0.6457888 1.354729
0.4631058 0.6509407 1.92263
0.3707145 0.6191646 1.193665
0.3575328 0.677846 1.033912
0.3785616 0.4348935 1.440763
0.3884079 0.4478689 1.527998
0.2525088 0.6912546 1.890128
0.2905186 0.8048243 1.930423
0.3774312 0.5857092 1.140326
0.1377032 0.798004 1.109208
-0.3052308 0.7410461 1.238221
0.4028206 0.7468718 1.016595
0.3880253 0.5470321 1.306617
0.4002277 0.4357851 1.598621
0.4611623 0.4467791 1.382813
-0.433502 1.19119 2.654412
0.627184 0.428148 1.336473
0.3284489 0.5461096 1.38929
0.2969242 0.5470449 1.49393
0.08643964 0.3004104 1.310516
0.3626696 0.5699201 1.343807
0.04350341 0.2257864 1.047369
0.5754392 0.2520397 1.398607
0.3466371 0.406967 1.483643
0.3788767 0.4938369 1.326266
0.4949719 0.3321722 1.385413
-0.3464754 0.8378555 1.194661
0.3281574 0.547718 1.387148
0.171135 0.63384 1.296869
0.279286 0.7716938 1.06029
-0.3070955 0.7737139 1.229554
-0.2935937 0.673115 1.319026
0.1098644 0.1683244 1.378734
0.06082852 0.1762672 1.511236
0.0568062 0.1622739 1.504927
0.2258317 0.135635 1.334385
0.1876402 -0.2056546 1.331786
0.5652825 0.05258677 1.337957
-0.1171163 -0.03496156 1.296772
0.2433332 -0.2126119 1.308519
0.4733193 0.3039996 1.372028
0.2450168 0.2723475 1.358654
0.4739711 0.1866923 1.389572
0.3211108 0.3555866 1.409939
0.2275027 0.3623644 1.387141
0.3737368 0.4651943 1.421855
0.4071395 0.3934683 1.636879
0.3701279 0.382757 1.453936
0.4155204 0.4093389 1.676594
0.3852443 0.5159363 1.408247
0.375888 0.3391171 1.477547
0.3947746 0.4381938 1.76819
0.3550911 0.3535193 1.508666
0.1628844 -0.003429685 1.453752
0.1583987 -0.01662685 1.39488
0.05551479 0.08128996 1.476387
0.1597986 0.0008368768 1.452648
0.006558288 -0.01544686 1.372495
0.3192636 0.01861201 1.409644
0.3286186 0.314814 1.365212
0.3336522 0.03033383 1.475016
0.4616678 0.5580725 1.88853
0.4130692 0.7323871 2.099993
0.3965129 0.4457635 1.630381
0.2115545 0.72913 2.098077
-0.536607 1.025794 1.834224
-0.2823361 0.6157156 1.373254
-0.2788239 0.6240157 1.434811
0.3154017 0.6054744 1.293095
-0.2797813 0.6244132 1.43773
-0.2828527 0.5908221 1.451487
-0.3570178 0.8085678 1.265862
-0.4754543 0.9857905 1.786836
-0.3573754 0.7450973 1.116322
-0.2830674 0.5989594 1.461317
-0.1668942 0.6231669 1.34201
0.3512609 0.5902072 1.014572
-0.2953341 0.6952302 1.340812
-0.1860907 0.6219662 1.382055
0.3388945 0.1772501 1.337095
0.2474907 0.136084 1.330006
0.3303814 0.2967193 1.367587
0.06009892 0.1214482 1.396732
0.06117057 0.1763227 1.414207
0.04132047 0.1636024 1.492834
0.3254878 0.2378224 1.576041
0.1921455 0.125664 1.34009
0.3362025 0.213985 1.320462
0.1844874 0.1663971 1.383811
-0.2765189 0.5638747 1.963429
-0.3060966 0.7699718 1.227439
0.3392318 0.7579149 1.135562
0.1177843 0.552816 1.381697
0.352351 0.6368547 1.265542
-0.2865745 0.5964056 1.441211
-0.3023044 0.7192708 1.283897
0.1204583 0.6053684 0.9030132
-0.3040594 0.7334412 1.262978
0.2841017 0.736719 1.106157
-0.3506207 0.5148848 0.9295849
0.3817444 0.4990892 1.32801
0.3515347 0.6704909 1.071767
0.3264769 0.6651311 1.260503
0.3089858 0.6850117 1.195698
0.3224473 0.659181 1.256822
0.3097855 0.5207278 1.019922
0.3369978 0.7010509 1.19416
0.4154675 0.6429888 1.647518
0.2456547 0.2087158 1.147566
0.3526295 -0.05485024 1.361235
0.5346736 0.1499861 1.360766
0.3754461 -0.0413099 1.428155
-0.1553992 -0.2859387 1.534947
-0.07263675 -0.02032819 1.331411
-0.2464446 -0.1775481 1.278828
0.3883488 0.4605864 1.488817
0.1642247 0.6287709 1.28964
-0.01292633 0.770363 1.114837
0.3432932 0.7025158 1.228699
0.3519918 0.5603401 1.398877
-1.288815 -1.342279 0.2093238
-0.9844763 -1.174357 0.1761857
-0.66796 -0.7262753 0.6373759
0.4867977 0.5652126 1.92287
0.3906142 0.4914613 1.499678
0.4301135 0.6106116 1.690643
0.2936577 0.8875824 2.170325
0.1805856 0.8458611 2.067277
0.3070304 0.649581 1.818517
-0.1440113 0.6103352 1.618126
0.2356285 0.8780739 2.189695
0.2522294 1.053845 2.386053
-0.4885932 1.393323 2.41791
0.3150037 0.51046 1.41082
-0.4362095 1.089909 2.038483
0.001074768 0.6405771 1.333949
0.4393685 0.4362731 1.262642
0.1736709 0.6499915 1.978451
0.2334923 0.689338 1.906171
0.232124 0.7680457 2.021386
0.3753771 0.524478 1.781892
0.3532593 0.3265744 1.128225
0.2358723 0.2253765 1.114847
0.137296 0.7761189 1.887373
-0.2812631 0.5907724 1.449259
0.4290593 0.7059025 1.750214
0.3372313 0.5550501 1.028918
-0.2823988 0.5698931 1.477423
0.374743 0.7256488 1.018718
-0.2773052 0.567822 1.434687
0.3524531 0.742939 1.872428
-0.2270575 -0.01500428 0.9447426
-0.04471701 0.167088 1.105343
-0.1035794 -0.09084649 0.9542671
0.01043209 0.08488041 1.466659
0.4019644 0.414578 1.778507
0.3090205 0.3121054 1.57825
0.4010907 0.4357907 1.59889
0.4165134 0.6468778 1.646538
0.2375652 0.8770981 2.190365
-0.04120271 0.740882 2.183393
-0.1423807 0.6511198 1.364531
0.3787594 0.5561607 1.282607
0.3614284 0.5960174 1.318643
0.2634013 0.7467282 2.068603
-0.0828511 0.6298063 1.336591
0.3719441 0.4105429 1.436492
0.2679916 0.6075665 1.966137
0.3369531 0.6538664 1.275224
0.3856127 0.3798726 1.463636
0.215901 0.6832373 1.810608
0.4626411 0.6064818 1.929818
0.3499579 0.655386 1.243844
-0.05519591 0.5683711 1.511753
-0.1657257 0.6404328 1.361182
-0.04957066 0.6364917 1.337797
-0.07953258 0.6563619 1.975254
-0.03737506 0.4693859 1.352548
-0.0236727 -0.2977999 1.092611
0.03490938 -0.2061733 1.147675
-0.02609351 0.1685419 1.106618
0.3001419 0.6269557 2.033206
0.3460033 0.6786269 1.270471
0.3601984 0.3409617 1.466365
0.3791559 0.3633493 1.527016
0.3500276 0.5137082 1.363918
0.3542611 0.6382062 1.265643
0.4191017 0.4821489 1.675872
-0.03370913 0.6950216 2.018943
-0.2906919 0.2110196 0.9482031
0.5315612 0.4952641 1.359916
0.2567385 0.1503808 1.338206
0.321035 0.2229594 1.548116
0.3508057 0.2230349 1.445934
0.2264293 0.1282666 1.329869
0.1389284 0.2134816 1.443748
0.05382863 0.09717147 1.413395
0.07145796 0.189492 1.436428
0.3405178 0.2079953 1.496813
0.2224963 0.1991309 1.448837
0.06554466 0.1198857 1.485534
0.07077228 0.09943704 1.359767
0.255184 0.09514568 1.24996
0.0981652 0.626397 1.30103
-0.4280289 0.8884621 1.626346
-0.2997462 0.5562295 0.9412034
-0.2622622 0.7777655 1.152948
0.2447177 0.5278795 0.854506
0.3551224 0.7597907 1.061008
0.1908247 -0.07862114 1.279351
0.02866363 0.04797358 1.376152
0.06779715 0.16786 1.418384
0.1313123 0.1271501 1.328607
0.08299345 0.1266258 1.351297
0.09465749 0.1666652 1.392321
-0.02016972 0.124754 1.507594
0.06112678 0.0941275 1.444884
0.06659043 0.2017025 1.424368
0.2426038 0.1245962 1.321332
0.3420233 0.2548816 1.342037
0.06169966 0.1179009 1.397886
0.04092157 0.1256338 1.394671
0.2517233 0.06839074 1.245921
0.1008647 0.1456272 1.363302
0.05897121 0.166385 1.444386
0.4841395 0.3115442 1.382909
0.213356 0.04252288 1.369112
0.2354292 0.252692 1.444567
0.4096019 0.2302278 1.383808
-0.09224168 -0.05445965 1.326138
0.1711947 0.1438598 1.356336
0.08429316 0.1302151 1.389517
0.1523495 0.2050537 1.453594
0.3531159 0.3139729 1.411562
0.3426277 0.3727082 1.381529
0.3364835 0.3115716 1.378963
0.05874586 0.08517349 1.333544
0.0212153 0.08837855 1.338898
0.3683615 0.2178531 1.537971
0.3802137 0.4515368 1.418299
0.3749019 0.3248221 1.600685
0.3211448 0.3303518 1.612415
0.3475119 0.2900115 1.623614
0.2132087 0.2474549 1.616015
0.2040206 0.2505552 1.601063
0.397626 0.3976121 1.481573
0.3742341 0.2972142 1.502856
0.4249665 0.2908564 1.572339
0.3396263 0.2759877 1.6178
-0.2415931 0.5763235 1.47408
0.3433457 0.7280546 1.17242
0.4411517 0.8036604 2.006846
-0.04033326 0.6412895 1.343538
-0.1268201 0.6401568 1.355462
0.3278398 0.7159334 1.168522
0.370729 0.5395296 1.37996
0.3527341 0.7729221 1.147502
0.3385675 0.7584739 1.138297
0.264151 0.3128821 1.535186
0.2196145 0.2596884 1.646792
0.3247413 0.2351304 1.575998
0.2741138 0.6934361 2.12905
0.3976343 0.422883 1.577781
0.3788504 0.4106382 1.471032
0.336314 0.542638 0.9357492
-0.08840032 0.7459984 1.158769
0.2641011 0.2447568 1.117128
0.3462369 0.4325441 1.146211
0.1922354 0.1373967 1.351722
0.3539785 0.2238329 1.383386
0.5029052 0.6025276 1.951743
0.04682601 0.3956857 1.776329
0.4026875 0.4887301 1.508015
0.4231327 0.608582 1.667641
0.3910316 0.342435 1.556698
0.3583972 0.3395424 1.420583
0.3602169 0.3066295 1.448378
0.2886474 0.7050409 2.197661
0.3882713 0.4072066 1.531696
0.4657207 0.6025937 2.043541
0.1166965 0.1539704 1.364383
0.346682 0.6543019 1.061576
0.3584395 0.3377798 1.418525
0.3686246 0.3687441 1.450764
0.3994485 0.5384869 1.867922
0.1427956 0.191459 1.401429
0.07525481 0.1436962 1.384986
0.09611442 0.1173883 1.445934
0.08134043 0.1540124 1.511141
0.1906568 0.1390768 1.352309
0.04835691 0.1881526 1.452664
0.06134145 0.1782231 1.409879
0.3506662 0.231175 1.444216
-0.1725291 0.04352124 0.9974399
-0.03309535 0.189355 1.09541
-0.1220957 0.0794597 1.029559
0.1379775 -0.1713721 1.011095
0.06717937 0.2652213 1.146469
0.1154692 0.1053287 1.317192
0.256776 0.07025326 1.27389
0.06532089 -0.1117731 1.251187
-0.2338996 0.4221871 1.289216
0.3604833 0.490381 1.263296
0.1263549 0.7575288 1.089383
-0.02289472 0.4887102 1.176541
0.3394369 0.5201679 1.427516
0.1185487 0.5532305 1.382088
0.1650754 0.7394808 1.120268
-0.1525009 0.5807333 1.42977
0.357404 0.3525568 1.284836
0.3182095 0.7593147 1.197159
0.3829735 0.4601355 1.486618
0.4284111 0.7323744 2.105008
0.3485936 0.634755 1.265615
0.344277 0.7029006 1.923073
-0.2916755 0.6796705 1.389028
0.3548545 0.5432105 1.371563
0.376402 0.44476 1.267072
0.1197336 -0.2009853 1.17517
0.1060977 -0.06737676 1.16043
0.2033355 0.02801234 1.245139
0.1885009 0.09243988 1.305578
0.1166108 -0.1067876 1.240147
0.1978735 0.1071615 1.330001
-0.302838 0.7270826 1.291719
-0.2819467 0.5457689 1.441655
0.3218162 0.7400935 1.137572
0.4055387 0.6804232 1.890253
-0.2787229 0.5615808 1.424024
0.3354706 0.7263572 1.844957
0.2950509 0.750776 1.840524
0.350094 0.6693488 1.148245
0.243301 0.0899812 1.213708
0.364913 0.198049 1.521192
0.2155932 0.1994347 1.438737
-0.1379311 0.1511687 1.564765
0.05169513 0.1080842 1.401127
0.327302 0.4096081 1.036371
0.4227743 0.447947 1.630355
0.2305388 0.6247144 1.273408
0.3645886 0.6175781 1.150572
0.352358 0.6859092 1.223851
-0.2956015 0.6765231 1.32083
-0.3037866 0.723969 1.254802
-0.3046154 0.7723835 1.222403
0.344274 0.7288872 1.168563
0.3426925 0.7289538 1.169231
0.3599783 0.3952722 1.199397
0.3503916 0.5684809 1.083557
0.3261021 0.6595173 1.259956
-0.3686917 0.9309904 2.372115
0.2944896 0.7581574 1.131071
0.3672528 0.6379533 0.9871843
-0.3671843 0.9102637 2.329326
-0.3776957 0.7769294 2.20502
-0.2440116 0.604641 1.519536
0.3152972 0.5151344 1.035065
-0.2475641 0.5591921 1.447567
-0.05430362 0.5989575 1.359972
0.3673572 0.7456217 1.089878
0.2233156 0.8531694 2.147458
0.3721051 0.6941023 2.014997
0.06347968 0.1987 1.428646
0.01044712 0.08454206 1.467133
0.0629525 0.1770225 1.444676
0.06297866 0.1251057 1.480761
0.3791656 0.2830485 1.534974
0.3616541 0.2437554 1.494354
0.02407172 0.04614018 1.418355
-0.3717063 1.049443 2.447637
0.3112016 0.5109007 1.408489
0.4076321 0.7119454 2.058221
0.2352344 0.7415041 1.106635
-0.04931224 0.7124134 2.06107
0.3620737 0.6061031 1.141143
0.2095657 0.7253819 2.08382
0.2384863 0.6300411 1.279253
0.4660024 0.607815 1.933163
-0.003502879 0.7680671 1.112561
0.3613443 0.6827152 1.161675
0.2351211 0.6262636 1.892275
0.1339061 0.7678829 1.093424
0.3514447 0.4256422 1.338192
0.2100389 0.6180316 1.271051
0.03887308 0.6618932 1.694091
0.3646519 0.6812176 1.081823
0.2640623 0.5935431 1.935115
0.375087 0.6224942 1.231387
0.4228684 0.6950271 2.032245
0.321003 0.7084618 1.818011
0.1781514 0.6892096 2.007322
0.3609277 0.2356649 1.413826
0.07909086 0.7206123 1.274476
0.06208144 0.6908766 1.251612
0.06658956 0.6984833 1.258375
0.3656296 0.5807596 1.182673
0.408349 0.6392799 1.646859
0.4136268 0.618532 1.64966
0.0294011 0.04148227 1.385517
0.1819099 0.01372183 1.207665
0.08800973 0.1232604 1.353911
0.03331209 0.02971123 1.416646
0.3600259 0.2450848 1.585557
0.3691432 0.2648775 1.459193
0.1083569 0.1898634 1.403773
0.203863 0.0262078 1.244893
0.2812509 0.1656119 1.347421
0.1923139 0.1166225 1.330533
0.2133601 0.1852232 1.406049
0.1732809 0.1653977 1.401188
0.3561831 0.307638 1.387943
0.1883297 0.04623566 1.262383
0.09902687 0.1616441 1.396063
0.07105833 0.1054551 1.331704
0.2431915 0.08402923 1.289071
0.1136414 0.6341169 1.30343
0.3602877 0.3918557 1.377919
-0.2778556 0.6274516 1.437108
0.3903293 0.5478975 1.484687
0.4025535 0.5531203 1.311735
0.363878 0.1548646 1.482566
0.3377575 0.1674959 1.334951
0.1906697 0.1388488 1.352929
0.06095244 0.1186948 1.396653
0.3787954 0.4456545 1.268231
0.3483784 0.6031508 1.376836
0.3702197 0.5270073 1.237314
0.3435361 0.700208 1.224762
0.09540088 0.1665307 1.393201
0.208005 0.0864559 1.301122
0.34942 0.2073335 1.394229
0.05484125 0.2192204 1.463844
0.05728099 0.1033676 1.377814
-0.1445992 0.6392794 1.355936
0.2435884 0.7456124 2.030577
-0.2003317 0.481346 1.395062
0.2217574 0.6272683 1.277917
0.2461014 0.1005277 1.199485
0.07498762 0.1171096 1.315661
-0.232796 -0.4324775 0.9810219
-0.03911261 0.1536404 1.095486
0.08521109 0.2287721 1.153013
-0.17182 0.04676315 1.001366
0.2453402 0.1121362 1.166158
0.1107064 0.2222648 1.1111
0.3445348 0.6309873 1.265769
0.1344718 0.7669365 1.092432
0.3528394 0.6550147 1.012102
-0.07083489 0.5468357 1.312198
0.3493466 0.7019587 1.001078
0.08790954 0.2273031 1.150784
0.08391826 0.01822579 1.171051
0.1297367 -0.01376625 1.115569
0.22141 0.2299373 1.133284
0.3775631 0.4439103 1.389818
0.02611638 0.5314776 1.440125
-0.08607987 0.6153765 1.403434
0.3530079 0.6879951 1.904911
0.2155963 0.1103722 1.313313
0.1246582 0.1039276 1.314016
0.05913313 0.08143272 1.335108
0.07329781 0.09500057 1.451995
0.1319274 0.1713845 1.379786
0.1889441 0.02144437 1.350808
-0.3079423 -0.1849113 1.287103
-0.4657024 -0.2016622 1.235548
-0.4083398 -0.04606079 1.263468
-0.1323079 -0.2776426 1.337629
-0.5894333 -0.3692272 1.255285
0.1383176 -0.5766856 1.434744
-0.1930138 0.08788721 1.258381
-0.08856126 0.08057021 1.294702
-0.06427415 0.1849458 1.286738
-0.392723 0.2605417 1.225453
-0.4957134 0.2180711 1.220832
0.2164714 0.1970671 1.441352
0.2166195 0.11 1.313631
0.1583276 0.04762745 1.271497
0.3507063 0.2142322 1.426682
0.2087797 0.1892708 1.380993
0.04480523 0.07890779 1.383003
0.1715743 -0.06488404 1.275951
-0.02500806 0.1630731 1.102247
-0.07072097 -0.2272844 1.151919
0.1854641 0.01945446 1.199511
0.2480325 0.08183367 1.182375
-0.1652491 -0.2722665 0.8877431
0.1289741 0.1015295 1.313836
0.01160103 -0.1817769 1.063812
0.01540605 0.2094323 1.143502
0.06725455 0.162793 1.51756
0.331607 0.1627516 1.297219
0.3765637 0.2042282 1.539904
0.3462726 0.1827189 1.365318
0.05069379 0.09128755 1.38819
0.1249927 0.2180982 1.436496
0.3791683 0.2571337 1.458546
0.07388045 0.1699526 1.5407
0.1078525 0.1835542 1.407495
0.1869721 0.1202115 1.329437
0.2517314 0.1071495 1.217559
0.1039174 0.1010006 1.313407
0.3551296 0.19515 1.391966
0.3536769 0.2912099 1.367216
0.338386 0.1768094 1.337275
0.2592809 0.1475359 1.339328
0.3231615 0.3470836 1.655133
0.1242276 0.1584997 1.37357
0.05366376 0.1385055 1.521823
0.3498094 0.2201339 1.392331
0.03674072 0.2875627 1.654877
0.385895 0.3342271 1.563408
0.1538153 0.01046112 1.241399
0.1255294 0.1472555 1.35476
0.16766 0.03286686 1.331516
0.08432823 0.1781131 1.449531
0.216106 0.6843653 1.101743
-0.01526134 0.4839833 1.384052
0.3238745 0.732271 1.052783
0.2801692 0.7400756 1.116002
0.105527 0.7755491 1.097516
-0.077967 0.5644564 1.509453
0.3449094 0.360473 1.321807
0.3869196 0.4982828 1.495916
-0.2405746 0.5751579 1.470437
0.3640954 0.5509446 1.175133
0.05797408 0.7393914 1.148958
0.1974917 0.1422166 1.360074
0.1155852 0.1928045 1.418688
0.3422915 0.3400245 1.409056
0.1272294 0.1710587 1.378025
0.2705595 0.2043757 1.43965
0.1426184 0.2054669 1.399567
0.2495535 0.1834014 1.440066
0.1130522 0.2080737 1.454403
0.3655773 0.5309702 1.357871
-0.08593822 0.7861084 1.914422
-0.1670329 0.6300451 1.348103
0.3748152 0.5504019 1.293
0.233296 0.06637734 1.233521
-0.08709683 -0.2853737 1.092421
0.1564007 -0.116044 1.126554
-0.2695925 0.1683874 1.060842
0.3352546 0.173419 1.359427
0.00490088 0.133756 1.104757
0.392305 0.4067899 1.054699
-0.279976 0.7681718 1.644423
-0.2871716 0.2805921 1.237593
0.3633069 0.7147382 1.191308
0.3696992 0.5248215 1.464373
0.3313724 0.5846382 1.378741
0.3786317 0.521674 1.291602
-0.004138233 0.7676743 1.112472
0.3487751 0.5455507 1.212092
0.2830406 0.7642471 1.069613
0.3850115 0.5122425 1.307548
-0.1376147 0.1774642 1.25856
0.5565022 0.1318778 1.417039
0.5849285 0.3926029 1.378104
-0.006390589 0.00416638 1.348103
-0.2355071 0.1179931 1.247187
-0.09586766 -0.4231944 1.444935
-0.4621715 -0.2146978 1.252043
-0.05986521 -0.07044341 1.379549
0.07788941 0.2928313 1.318574
0.3313668 0.5598549 1.359025
0.410453 0.4937018 1.645609
-0.264418 0.5784689 1.522374
0.3753323 0.4512104 1.416528
0.3588626 0.6898063 1.114952
0.4204173 0.3541497 1.616322
0.4144015 0.413873 1.523146
0.3336788 0.3396294 1.643861
0.3440824 0.5204533 1.425402
0.3715862 0.3560946 1.522785
0.03293871 0.07626038 1.338899
0.1795415 0.09993575 1.302074
0.1752129 0.2018876 1.435933
0.3425738 0.2277561 1.438877
0.03677866 0.03543961 1.387458
0.2877695 0.7563013 1.147796
-0.4589687 1.09903 1.628264
0.3631679 0.4007185 1.383215
0.3313264 0.7167635 1.173846
0.448376 0.7221528 1.778044
-0.005677184 0.5610628 1.240282
0.3535345 0.6587186 1.247568
0.03997578 0.03199809 1.400639
-0.1835096 -0.2779372 0.873785
0.05199793 0.1760465 1.078727
0.1791684 -0.0003782643 1.097461
-0.2711951 -0.03470574 0.9265516
-0.2280919 -0.01593058 0.9447418
-0.2942869 0.2226489 0.93102
0.5389113 0.4719164 1.364618
-0.1163921 -0.1928075 1.336886
0.02602128 0.1679485 1.407176
-0.2955675 0.1836819 1.043146
-0.2799148 0.1792013 0.8968575
0.335638 0.4229546 1.458162
0.1541903 -0.00523532 1.322996
-0.1753432 0.0821603 1.213629
0.2890786 0.3502085 1.531573
0.06541598 0.1181286 1.621403
0.04053125 -0.08798984 1.344729
-0.2263937 0.07638094 1.25453
0.3051536 0.3290413 1.347126
0.2464465 0.4622168 1.317444
0.05119398 -0.2694947 1.416356
0.5268737 0.2832314 1.38075
0.4769616 0.3307905 1.310333
-0.05736348 -0.06739047 1.315806
-0.1832119 -0.206967 1.293981
0.3140965 0.3762753 1.359537
0.3407953 0.5079462 1.425321
0.1018941 0.2153773 1.451626
0.03429068 0.03917735 1.37745
0.2091265 0.02456684 1.240223
0.1847709 0.08014731 1.303564
0.1679332 0.2083563 1.436897
0.2505093 0.1402169 1.197269
0.02201684 0.0737768 1.347321
0.09876218 0.1582486 1.511873
0.3533963 0.3129342 1.410669
0.06242995 0.1264137 1.480942
0.321225 0.1407194 1.238482
0.04827143 -0.2648125 1.113805
-0.01346633 -0.2022555 1.093489
-0.02977085 -0.2842808 1.09894
0.4576035 0.704504 1.95845
0.4105113 0.642582 1.651351
0.371484 0.3755254 1.450829
0.3949225 0.4218629 1.576814
0.4030494 0.5197351 1.67354
0.3563174 0.5444313 1.358679
0.1146708 0.1917475 1.418359
0.3467955 0.258534 1.348587
0.1279956 0.1452125 1.355578
0.07409268 0.1530986 1.391664
0.1914776 0.1378881 1.351957
0.3563037 0.2732207 1.351431
0.1760906 0.1920672 1.433766
0.06619101 0.1762491 1.478924
0.06688672 0.1747466 1.481848
0.1091186 0.2099186 1.454416
0.06896383 0.2053505 1.480592
0.1736275 0.2049237 1.440315
0.2153895 0.1981455 1.412894
0.160715 0.1931358 1.429454
0.08707879 0.2082683 1.462648
0.3657099 0.308049 1.487265
0.381702 0.4678968 1.427339
0.4291076 0.5520014 1.671988
0.3434506 0.2298861 1.347088
0.2607301 0.1806025 1.347204
0.3529146 0.2435824 1.458837
0.247779 0.1368393 1.330289
0.208039 0.1810897 1.375484
-0.1206857 0.08014303 1.02863
0.03658475 -0.2045276 1.151507
-0.1119565 -0.2256823 0.8497032
0.1235417 -0.06141675 1.290111
-0.1717267 0.05106702 1.003459
0.05974206 0.1661711 1.068512
0.05835288 0.1742132 1.052964
-0.1211396 0.08098394 1.029933
0.06708369 0.1090952 1.347906
0.3272854 0.1354934 1.238761
0.3266283 0.1004653 1.302972
0.3244661 0.1005277 1.302935
0.3533631 0.5795827 1.136765
0.42452 0.5197802 1.30191
0.483087 0.710961 1.957908
0.3244721 0.137745 1.332546
0.2325622 0.1980017 1.414778
0.2736183 0.174653 1.341733
0.05127695 0.1143644 1.373472
0.3281833 0.1660438 1.262249
0.1859123 0.07834888 1.304768
0.0770255 0.1345326 1.349087
0.06749088 0.09488953 1.354403
0.04143674 0.08282232 1.37929
0.0708778 0.03141982 1.382674
0.3278825 0.1932791 1.292244
0.3414195 0.2133367 1.360325
0.1315781 0.1710958 1.379163
0.321171 0.1990607 1.531288
0.3552798 0.2188116 1.517161
0.2442307 0.1693755 1.365128
0.3387565 0.2012521 1.329247
0.1944736 0.1564968 1.369473
0.1223475 0.1514585 1.366784
0.07837237 0.1296801 1.360381
0.08882503 0.07687545 1.324492
0.1846104 0.08006936 1.30395
0.06629892 0.09363206 1.353402
0.06811175 0.03473128 1.378665
0.3309772 0.1366309 1.313453
0.191942 0.1586122 1.368668
0.06582831 0.1185191 1.348119
0.08264279 0.09867821 1.314618
0.1534154 0.1009072 1.339708
0.05162165 0.1112518 1.37497
0.3932807 0.550117 1.486012
0.3129519 0.3112117 1.582532
0.3641299 0.3406709 1.469728
0.2907758 0.3336816 1.581924
0.3064061 0.3110398 1.575593
-0.001598255 -0.14811 1.206115
0.04245766 -0.06939872 1.071986
0.2260353 0.7865903 2.15546
0.4231561 0.5510427 1.667492
0.04778688 0.6960279 1.751425
0.3980157 0.4545745 1.586381
-0.2122612 0.5766103 1.415153
0.2398388 0.6816519 1.866981
0.2448568 0.748425 2.036933
0.3689937 0.5223786 1.377748
0.2648937 0.704452 1.914009
0.4487074 0.6449638 1.902491
0.3708225 0.5284496 1.834887
0.3228524 0.3322701 1.561217
0.3185611 0.3183326 1.556741
0.3095796 0.3100222 1.576932
0.1756105 0.4748055 1.552092
0.3860711 0.3019955 1.506142
0.379329 0.3550625 1.547398
0.2987579 0.3341882 1.58864
0.4272434 0.4531868 1.789762
0.3283352 0.3224847 1.568885
0.2995618 0.349438 1.641291
0.371606 0.3975381 1.733109
0.4470017 0.4652584 1.805045
0.2428108 0.5549766 1.881786
0.3294912 0.3299292 1.564395
0.02531593 0.04273713 1.376691
0.06189499 0.1624714 1.447147
0.1228641 0.105158 1.313169
0.1448804 0.7476594 1.077781
0.3842096 0.4078501 1.402056
0.2671052 0.7347186 1.120341
0.009231352 0.4756257 1.365564
0.09620222 0.6258702 1.299685
-0.3100109 2.258858 4.268808
0.3481143 0.7057032 1.1996
0.3403632 0.5343804 1.051247
0.3252278 0.7018797 1.828982
0.3852839 0.4111142 1.760175
0.3932579 0.3749028 1.58375
0.3737909 0.3712159 1.455544
-0.04589413 0.5232912 1.452015
0.05480462 0.609157 1.605784
0.08486287 0.6623351 1.727345
0.4281199 0.5467402 1.755574
-0.008259851 -0.1410987 0.9688573
0.1944737 0.6477438 2.015598
-0.2816981 0.6150751 1.370715
-0.2779496 0.6183481 1.426485
0.08621226 0.3005069 1.333359
0.6376733 0.4873785 1.286549
0.5984035 0.3560729 1.368072
0.3305902 0.5455199 1.392884
0.1759698 0.08382744 1.307025
0.06566304 0.1963516 1.431402
0.06543771 0.08954575 1.334514
0.06932816 0.1764794 1.507466
0.2042177 0.1977028 1.439669
0.05915865 0.177717 1.508245
0.04038918 0.3934223 1.755843
0.3773197 0.2844844 1.533033
0.4244772 0.3405691 1.579948
0.3306725 0.2948183 1.609349
0.4009747 0.6090208 1.575142
0.4908217 0.7922019 1.943116
-0.07735547 0.8843141 2.129264
0.3999226 0.5810912 1.556067
0.3489859 0.2148826 1.426459
0.06275593 0.1042849 1.455099
0.1589137 0.04933606 1.272211
-0.8988714 -1.142403 0.3013001
-1.19262 -1.13631 0.06517386
-0.4849263 -0.2576042 1.157677
-1.131683 -1.426004 0.3010824
-0.8719959 -1.090636 0.2139697
-0.1693903 -0.09267642 0.993977
-0.2931299 0.06397938 1.004099
-0.1652729 -0.1836818 1.016043
-0.9934734 -1.178848 0.1978868
-0.1733851 -0.2633491 0.9045358
-0.6884652 -0.3337876 0.5934281
-0.1571314 0.1197479 1.225519
-0.1366056 0.3366302 1.324528
-0.3957084 0.01594962 1.231525
-0.2950733 0.0541626 0.9944298
-0.570943 -0.7341978 0.6081201
-0.3117265 -0.471848 0.9371126
0.03633725 -0.03688267 1.079962
-0.4385652 -0.4338927 0.6497337
-0.1008741 -0.1173596 0.9536318
-1.005953 -0.9442077 0.6156045
-0.6602333 -0.7865428 0.6203755
-1.007161 -0.4394804 0.6786442
-0.4944244 -0.5275866 0.735806
0.06184847 0.160847 1.448332
0.3371228 0.2045102 1.437486
0.1531764 0.1945899 1.426062
0.4489096 0.7265935 1.790632
0.1468216 0.5915748 1.323432
0.2371956 0.8733819 2.107901
-0.05433857 0.7032343 2.095114
0.4223068 0.6230075 1.970842
0.04083814 0.3942736 1.759532
0.374208 0.4630128 1.421263
-0.06293082 -0.07564594 1.337605
0.3140575 0.4715906 1.730526
0.1295888 0.1677456 1.377409
0.1846076 0.01289884 1.230161
0.2327554 0.7826809 2.17412
0.3876546 0.3636028 1.60232
0.3477153 0.522504 1.430006
0.3972941 0.4351467 1.595728
0.1227426 -0.04446646 1.00859
0.0760797 0.026538 1.095296
0.1095007 -0.1268507 1.191202
-0.2617324 -0.4175715 1.006046
0.1053055 -0.06704714 1.07761
-0.2230434 -0.4139069 0.9490019
-0.236836 -0.2744861 0.9568022
0.04308956 -0.04704428 1.026217
-0.01336438 0.1938295 1.24003
0.3345828 0.3152169 1.573108
0.3730193 0.430886 1.590312
0.3519213 0.3262213 1.394293
0.2454404 0.1237227 1.321038
0.1911794 0.1381741 1.352014
0.1951603 0.1565527 1.369343
0.190466 0.1549123 1.367839
0.2700237 0.1634713 1.336448
0.1184261 0.2028272 1.432307
0.2494 0.08920119 1.25276
0.12913 0.2214476 1.438241
0.1540221 0.1167166 1.317608
0.06769601 0.06131367 1.363631
0.07735423 0.1315251 1.360288
0.4066426 0.09733479 1.46542
0.5408023 0.4731321 1.373287
0.4150611 0.5340866 1.368712
-0.05978205 -0.05343881 1.339873
0.4992222 0.330568 1.366545
-0.1156735 -0.1990953 1.369396
0.1659164 0.3683394 1.327488
0.3757295 0.5454122 1.387108
0.5852774 0.3947048 1.396962
0.1178909 -0.1809628 1.448918
-0.03444665 0.1751844 1.174007
-0.1591498 -0.133307 1.305484
0.4763995 0.183216 1.388605
0.2077617 0.2011417 1.435555
0.07416708 0.1522477 1.391566
0.1157833 0.1905476 1.419361
0.3399591 0.1286554 1.337533
0.3518919 0.3239099 1.371705
0.1725449 0.1744606 1.374754
0.3448091 0.2778421 1.348053
0.3507334 0.2839582 1.369013
0.273524 0.1706037 1.34302
0.2697182 0.1622986 1.336541
-1.333272 -1.922235 -0.09669744
0.04492189 -0.1052834 1.085918
0.101779 -0.04744829 1.178538
0.05251243 0.10022 1.409417
0.08596443 0.1383722 1.358417
0.05725913 0.09956306 1.451309
0.07082357 0.09846617 1.322295
-0.2695919 -0.4916907 0.7846288
-0.003314489 0.08542988 1.101503
-0.1142659 -0.1914996 1.186264
-1.155564 -1.434528 0.1380732
-1.087671 -1.309915 0.3789597
-0.8909461 -1.208249 0.3200498
-1.390812 -1.494045 0.1084872
0.4622632 0.3303569 1.401417
-0.08626974 -0.06017032 1.317909
-0.156958 -0.1267779 1.333121
0.4868515 0.3106226 1.384618
-0.08343082 -0.05682003 1.341901
0.3516133 0.5286808 1.068186
0.01439827 0.5462008 0.8968062
0.340059 0.3220263 1.118598
-0.3201533 1.207058 2.712081
0.3744914 0.2676561 1.476767
0.04835234 0.07992417 1.430946
0.1273119 0.1898987 1.408357
0.06020869 0.09090132 1.452129
-0.2054885 0.3334599 1.132599
0.2259602 0.5141655 1.427583
-0.06241946 -0.197359 1.339882
0.2287348 0.5205432 1.440042
0.390373 0.1669239 1.391112
-0.356755 0.9733884 2.299564
0.2058886 0.1898974 1.403646
0.3322846 0.1372818 1.309325
0.02056302 0.2756714 1.670223
0.06697766 0.1750672 1.511198
0.1068716 0.2116932 1.454059
0.1401793 0.1930179 1.400919
-0.2923131 0.6297392 1.366013
0.300882 0.4455363 1.081372
-0.2846204 0.604265 1.472503
0.3650401 0.4559022 1.121898
0.04019675 0.4800753 0.8270528
-0.09977216 0.5780526 0.9341874
0.1180889 0.6351101 0.9403509
-0.09796438 0.5825636 0.9360141
0.1862956 0.01867171 1.227386
0.1692231 -0.02041311 1.336595
0.1705563 -0.02188894 1.337075
0.1847056 0.05981288 1.170558
0.184356 -0.07345885 1.277342
0.04821559 0.04373099 1.412852
0.07104635 0.02508724 1.390806
0.03800594 -0.1149465 1.017766
-0.01166762 -0.2036764 1.035586
0.04431118 -0.06753632 1.070227
0.275168 0.05708887 1.498958
-0.1781569 0.08365738 1.207179
0.6412597 0.4830939 1.29566
0.2472189 0.1136624 1.308896
0.05841348 0.1112324 1.344012
0.172616 -0.03477839 1.168389
0.2168535 0.1073879 1.31226
0.180265 -0.01720785 1.206472
0.04160313 0.3937622 1.76518
0.386972 0.4380645 1.765754
0.3830182 0.3338614 1.55553
0.09538744 0.6541508 1.683331
-0.08978494 0.5407156 1.636701
0.2284111 0.05857732 1.19378
0.2377326 0.09170491 1.169857
0.02404034 0.08274132 1.339021
0.1091769 0.04442557 1.06995
0.03162922 -0.1547559 1.050157
0.06831215 -0.1039296 1.035511
0.1876773 0.07950935 1.154944
0.3794413 0.6594204 1.675407
0.5396809 0.562365 1.318458
0.3556376 0.5700518 1.340488
0.1674747 0.2167181 1.140744
0.3007778 0.5906683 0.9033117
0.02179916 0.2603377 1.174805
0.07506648 0.2923518 1.259399
0.3219224 0.6009222 0.9615295
-0.3369591 0.8283146 1.191322
0.3668834 0.4214563 1.18308
-0.2152714 1.025584 2.348386
-0.301652 0.2743982 0.9760719
0.4385751 0.1150434 1.567
0.543389 0.535112 1.345959
-0.2919233 0.444112 1.650988
-0.3153784 0.159753 0.9610639
0.3691631 0.545725 1.382857
-0.2607403 0.2864249 1.037621
-0.2831086 0.5864856 2.027064
0.2645845 0.7365338 1.066468
0.1904011 0.495742 1.425677
-0.463169 1.07705 1.853603
0.2276863 0.4624777 0.7970898
-0.4191286 0.648932 1.050489
0.3121365 0.4578944 0.9142666
-0.01286007 0.4891999 0.8630756
0.3279444 0.3198676 1.053134
0.06541263 0.6569852 0.9634223
-0.448474 1.132078 2.070359
0.2616307 0.7345374 1.066121
-0.00629115 0.202371 1.136671
-0.02853367 -0.1183608 0.9809675
0.03569992 -0.1138489 1.020388
0.1741239 0.02541252 1.076102
0.1225987 -0.1260585 1.139195
0.1241766 0.03343932 1.034853
0.2215909 0.1078544 1.139695
0.1179505 -0.02430484 1.029343
0.05515328 0.05035299 1.381243
0.02869251 0.03860433 1.38155
0.03030483 0.03407106 1.384229
0.1903004 -0.09183617 1.267364
0.04984101 0.03606018 1.391566
0.2527636 0.12201 1.316936
0.06468336 0.1182776 1.35434
0.05398244 0.1059424 1.403654
0.06066976 0.06049123 1.378478
0.04381253 0.08195764 1.382777
0.245049 0.1142853 1.308984
0.1833382 0.08939494 1.301654
-0.002088076 0.1937652 1.129185
0.1283184 0.1445775 1.356709
0.0626642 0.06280801 1.364453
0.118413 0.1591547 1.368461
0.08858734 0.1168427 1.359856
0.1057402 0.1057912 1.316975
0.1595433 0.1080187 1.323809
0.1800047 0.09626852 1.302972
0.06015707 0.0898624 1.354298
0.06134006 0.1065097 1.453163
0.05175637 0.1158799 1.372666
0.1618974 0.1012102 1.33393
0.04732813 0.08295394 1.429214
0.352022 0.4939774 1.097881
0.3636146 0.4553691 1.149266
0.351254 0.4486428 1.140332
0.05584382 0.1581997 1.320303
-0.3841887 -0.3641761 1.280343
-0.07558327 -0.01786715 1.326469
0.1445357 -0.08717267 1.26994
0.1789961 0.01799803 1.175899
0.1813685 -0.0164775 1.206418
0.0509311 0.1162008 1.372115
0.04594714 0.05198183 1.407765
0.2405485 0.1334725 1.142454
0.1098438 -0.09096291 1.131652
0.0835432 0.08722218 1.322164
0.3770158 0.3390681 1.479325
0.4436679 0.5776919 1.87445
0.4723022 0.7040431 1.945288
0.3947228 0.4219803 1.577008
0.4099914 0.710654 2.062667
0.3962599 0.5800534 1.551833
0.5406684 1.278126 2.780709
0.2990808 0.7535827 1.842552
0.1261982 0.07493839 1.39866
0.05391052 0.1001238 1.381654
0.07107003 0.1502015 1.383603
0.1777234 0.2646008 1.668211
0.362786 0.3023076 1.394403
0.06359469 0.1784388 1.474942
0.343986 0.1984512 1.413047
0.06476895 0.09195974 1.465767
0.2070823 0.2656838 1.625756
0.347198 0.7528558 1.057815
0.3476002 0.6827903 1.21927
0.2838653 0.7371479 1.141542
0.3471774 0.6624382 1.092177
0.3591005 0.5700777 1.341633
0.3684602 0.617321 1.191434
0.378638 0.5541354 1.260613
0.3722748 0.5876894 1.20605
-0.0500288 0.5975634 1.378351
0.1216814 0.6619925 1.690428
0.2253911 0.6196029 1.872607
-0.0337655 0.6508082 1.355296
0.4224059 0.6067401 1.68135
-0.07428136 0.6125595 1.361944
0.4816263 0.7807484 1.928241
0.2862177 0.7876614 2.029615
0.4454626 0.7256306 1.776257
0.3558257 0.740171 1.074948
0.2112446 0.7259077 2.074399
-0.069609 0.9062018 2.166144
0.4621091 0.7057974 1.962104
-0.1840226 0.5982489 1.417382
0.4118918 0.7229405 1.784674
-0.1759006 0.6042862 1.510638
0.3362863 0.7436712 1.146461
0.3484899 0.2152195 1.425309
0.05763348 0.1222072 1.395431
0.1789617 0.09725482 1.301848
0.05332157 0.09780388 1.409727
-0.05807202 0.1092542 1.497658
0.05982458 0.1658453 1.447584
0.05090471 0.1159714 1.372205
0.1515518 -0.09737452 1.25692
0.1840511 0.03923361 1.177529
0.07571769 0.1165086 1.369511
0.2343761 0.6933983 1.95585
0.3498732 0.5386721 1.055428
-0.3410035 0.989966 2.479558
0.275383 0.2372812 1.151871
-0.4042058 0.6789824 2.27351
-0.2316218 0.6735293 1.734687
0.3592983 0.5912302 1.319842
-0.2007228 0.319064 1.250295
-0.5659547 0.2094769 1.188082
-0.6369418 -0.2101972 1.214092
-0.1548717 -0.3732502 1.033635
0.2413747 0.08090362 1.22539
-0.01577437 -0.1911108 1.097712
0.224276 0.1456591 1.147674
0.2178269 0.1178205 1.153185
0.05027357 0.1025673 1.402722
0.05699988 0.1681977 1.443302
0.0685455 0.09111895 1.45921
0.1299124 0.1703957 1.378532
0.3329601 0.2195444 1.285431
0.06077558 0.09015154 1.327767
0.07705474 0.1418807 1.384054
0.03584857 0.03537691 1.399225
0.1844196 0.02559896 1.20617
0.06471588 0.04422624 1.392142
0.1280625 0.5549861 0.8873323
-0.08216641 0.5618764 0.9325731
0.3606561 0.3541746 1.408371
0.3683588 0.4097379 1.386632
0.3391139 0.5426096 1.039751
-0.3116603 0.780118 1.169669
0.341923 0.4530947 1.122608
-0.2976212 0.6187504 1.177416
0.3606436 0.726842 1.122602
-0.1639429 0.6445328 1.365046
-0.2911184 0.6223095 1.358072
0.3382348 0.4662782 1.038398
0.3639659 0.2531157 1.467872
0.3401605 0.3920397 1.377645
0.3579637 0.3128172 1.415321
0.0803645 0.1294211 1.350359
0.3491496 0.1969259 1.416092
0.3062568 0.1976625 1.436721
0.3448742 0.2491358 1.572569
0.3440808 0.2558339 1.331148
0.2120124 0.2017586 1.422989
0.06638709 0.09729269 1.458079
0.3708145 0.2989768 1.513978
0.2070221 0.1812464 1.375234
0.3517715 0.1959005 1.439812
0.09586331 0.2081539 1.465774
0.1365038 0.2035632 1.424467
0.2168019 0.262551 1.639244
0.08129336 0.1780729 1.399613
0.007261961 0.06837938 1.449723
-0.01289354 0.1212456 1.503839
0.3417013 0.2145216 1.358992
0.3229374 0.1778203 1.266859
0.3642864 0.404805 1.132237
-0.2893929 0.6173853 1.35301
0.3699937 0.4241137 1.539901
0.3755577 0.6875104 1.269351
0.3556719 0.3822488 1.204532
0.3294565 0.5990143 0.9254422
0.3471377 0.4446101 1.137505
0.3412924 0.4159308 1.046369
0.3074134 0.401388 1.515483
0.4020391 0.61989 1.853675
0.3257296 0.6873582 1.836177
-0.02394013 0.7486877 1.550038
0.3749002 0.5548133 1.281047
-0.4018537 1.458151 2.290591
0.4546656 0.6481092 1.159193
-0.05656105 0.1792433 1.256919
-0.1626565 -0.2768584 1.341044
-0.4403035 -0.2016952 1.238042
0.3467436 0.4386446 1.486593
-0.511274 -0.445797 1.155813
-0.004359579 0.3776042 1.338815
-0.2577761 -0.4933014 1.289249
-0.1428867 -0.003802817 1.290093
-0.3311518 -0.1452514 1.263159
-0.3560928 0.1757018 1.237312
0.3248563 -0.3020336 1.464375
-0.6339284 0.008708083 1.211545
-0.1649558 -0.1458336 1.301598
-0.07929625 -0.01721761 1.312892
0.1858359 -0.0137153 1.332253
0.2065024 0.08553141 1.303047
-0.2725835 0.5173927 1.395863
0.2226557 0.7415771 2.112216
0.1111659 -0.09747973 1.209254
-0.0160608 -0.2228438 1.141454
0.1048695 0.2162222 1.137665
0.2473532 0.1359615 1.330031
0.3359254 0.3478599 1.415037
0.3770756 0.1998672 1.870785
0.3779581 0.3633718 1.591655
0.1591145 0.04790859 1.2723
0.337169 0.1936714 1.335091
0.3417841 0.1859685 1.359261
0.08771607 0.1519067 1.51449
0.06664725 0.1605037 1.452953
0.2472836 0.1335957 1.329654
0.2464341 0.1724384 1.369128
0.06621209 0.1598914 1.454014
0.06178404 0.1739728 1.415518
0.07038423 0.1943956 1.432861
0.3690691 0.5855015 1.185123
0.4547583 0.5719718 1.902248
-0.3296532 0.7554358 1.149943
0.2577455 0.6525663 1.29716
0.1703566 0.6305997 1.293106
0.3218387 0.6102754 1.300382
-0.05927084 0.6511119 1.357279
0.1758291 0.6492483 1.31199
-0.06557246 0.7059837 2.105582
0.2415381 0.6939066 1.94617
-0.3128076 0.7871749 1.174096
0.2822674 0.776131 1.064554
0.009377657 0.6539531 1.347708
-0.2971834 0.6862273 1.333234
-0.2961809 0.6865157 1.331016
0.1970928 0.8115333 2.110723
0.248938 0.839411 1.995324
-0.03549821 0.6653823 2.001824
-0.1681472 0.6265729 1.420951
0.363602 0.6584839 1.19141
0.03224022 0.02997375 1.428589
0.2249979 0.1292253 1.32903
0.161519 0.09944685 1.337264
0.0751766 -0.2003804 1.088926
0.2042482 0.02824544 1.245631
0.2541493 0.03313441 1.241991
0.02882853 0.03518272 1.407834
0.2524484 0.03856247 1.252073
0.1827868 0.03091256 1.204759
0.08232258 -0.1152263 1.249327
0.1197624 -0.1116109 1.241505
0.1309487 -0.1054229 1.245201
0.1770158 -0.07038003 1.276156
0.1532762 0.01175478 1.239275
0.1751403 -0.1170624 1.232602
0.1218119 -0.1136601 1.242976
0.1075095 0.1046974 1.320731
0.1080215 -0.1216641 1.164962
0.1887052 0.05728133 1.170519
0.4536676 0.6425549 1.899253
0.3460087 0.348882 1.680889
0.3439666 0.5185782 1.443164
0.3778466 0.5758395 1.352514
0.3739537 0.5401047 1.380653
0.1685991 0.7347413 1.12121
0.299968 0.7554805 1.848443
0.3707233 0.508579 1.441672
-0.2179538 0.3773023 1.210258
0.3788614 0.5400765 1.371577
-0.2190212 1.051506 2.386164
0.4074687 0.583761 1.622442
0.06948432 0.1047356 1.352068
0.1176407 -0.06885066 1.168907
0.05254381 0.03988271 1.417413
0.1780736 0.03425378 1.172202
0.06617188 0.094335 1.354872
0.17152 -0.01974859 1.144359
0.1875813 -0.01103062 1.195886
0.1123705 -0.05606201 1.188541
0.1162936 -0.1053314 1.208321
0.1888901 0.01454715 1.226482
0.06135398 0.06047997 1.37841
0.2188309 0.1109707 1.313922
0.06872649 0.08860312 1.343472
0.05012926 0.08474915 1.386697
-0.01360302 -0.2227049 1.140193
0.1272802 -0.01312605 1.116777
0.2422398 0.124441 1.158512
0.03617168 -0.1665012 1.04631
